ply
		format ascii 1.0
		element vertex 1048
		property float x
		property float y
		property float z
		property uchar blue
		property uchar green
		property uchar red
		end_header
		0.000000 0.000000 0.000000 0 0 0
424.584389 -612.518215 -634.327412 166 173 182
569.575119 -610.639477 -580.385637 15 15 15
-254.032636 930.769253 1026.769352 84 98 101
-57.815796 632.885027 666.639042 49 62 70
173.694885 -646.760798 -548.732424 151 163 168
161.029220 424.531794 620.998287 94 106 111
144.446695 822.170162 899.253082 84 101 107
104.499698 861.852551 595.885420 144 149 153
89.106196 916.026688 596.974754 16 21 22
30.917168 1130.018711 714.884472 22 23 23
86.837953 942.762566 688.659811 144 149 153
-2.821731 1279.866982 846.442127 22 23 23
175.178170 505.118370 619.081879 4 11 13
141.166699 815.864086 702.671432 127 133 134
178.745687 504.350328 618.539000 61 71 73
178.745687 504.350328 618.539000 61 71 73
185.278583 599.121904 690.158367 67 86 90
185.278583 599.121904 690.158367 67 86 90
160.620248 829.768848 711.278677 126 131 132
215.168524 368.493176 598.539114 60 70 73
164.210272 831.348324 711.719751 12 17 17
79.426438 -581.066990 -726.639652 93 105 107
201.435447 669.859600 710.131407 84 101 107
177.956903 841.876698 717.561340 20 25 26
184.666634 848.829937 721.009254 18 20 22
184.081507 770.860147 633.162737 15 58 73
122.486985 1045.103550 545.176029 255 255 255
352.086234 509.964418 875.290871 124 132 133
115.777123 1024.134445 692.740297 31 31 31
261.258578 905.175209 751.230001 128 138 143
264.865422 910.544300 751.807785 11 14 17
447.364807 1063.225651 1278.233147 1 2 1
294.080949 938.918591 767.946243 12 17 16
280.489850 369.427872 463.416719 81 90 93
314.530396 955.577469 777.177238 12 16 17
365.388489 849.084854 818.935490 5 17 23
400.092936 1093.376446 949.448109 46 63 76
463.823986 1223.637199 991.197586 64 70 79
484.566832 1269.552803 1007.986927 166 173 182
410.650682 663.694429 667.091274 74 99 103
415.424109 903.036118 741.628075 146 160 166
415.424109 903.036118 741.628075 146 160 166
463.312340 581.077814 705.925751 144 151 153
470.909929 618.028355 709.650660 123 132 136
317.635536 220.468521 305.142999 69 78 81
492.659807 617.645979 715.333271 93 97 102
499.096870 612.881327 719.412470 148 153 156
496.836567 621.310806 718.262863 93 98 105
496.836567 621.310806 718.262863 93 98 105
534.378910 678.963900 778.204441 90 97 100
721.353722 1271.111202 1232.214355 88 117 126
435.783863 971.185303 701.922941 120 142 183
475.926018 964.998055 741.192913 166 173 182
510.534859 616.621304 667.959118 86 98 104
566.204643 1185.872555 909.177685 188 199 208
512.692499 1170.939255 814.128017 74 97 142
521.213675 1174.112129 816.588402 71 92 136
906.197262 861.908245 1243.771839 151 152 156
906.197262 861.908245 1243.771839 151 152 156
774.051523 1204.382896 1141.983509 133 161 169
625.510454 735.591984 790.895653 57 63 70
688.719130 706.700754 833.634949 64 73 73
728.336811 1300.657845 1032.532024 42 59 72
728.336811 1300.657845 1032.532024 42 59 72
681.213903 662.859344 790.592909 149 156 158
805.654812 724.546146 962.664795 143 151 154
572.915077 1144.384480 793.328905 137 165 212
705.279589 794.823360 835.998631 51 48 52
705.279589 794.823360 835.998631 51 48 52
887.791920 1059.977341 1117.854881 72 78 83
610.269165 1150.916290 810.756111 79 98 133
618.433142 1215.493965 832.434940 135 163 209
616.502571 1210.642815 827.767658 135 163 209
479.859257 1225.580025 668.964243 77 94 133
642.463923 1129.610538 831.650257 105 125 155
622.517538 1151.295662 810.612965 90 109 146
621.880627 1153.180313 809.922028 92 113 153
455.086517 326.673222 388.303018 139 146 149
529.878139 338.834262 475.074673 161 164 169
831.803894 931.859303 967.942619 72 78 83
724.970102 1271.725559 894.526291 19 25 38
761.563158 812.727833 811.626434 135 146 150
752.598238 791.306448 786.927080 135 146 150
438.195372 350.091004 330.967474 1 2 1
911.660480 951.256657 951.627636 155 163 163
916.115952 976.732826 959.327698 71 80 84
1150.477600 1287.632942 1216.662598 93 105 107
1123.965740 1241.336727 1168.461323 93 105 107
352.351952 374.793625 228.093696 226 237 241
1179.448795 1285.795212 1222.333145 140 150 152
1105.617905 1209.115028 1134.992409 93 105 107
1052.921581 1117.599869 1039.493275 93 105 107
1170.024681 1363.373280 1166.843700 24 34 38
1192.750072 1365.558243 1171.569252 38 53 56
387.203336 229.352260 211.683249 111 121 123
952.762127 942.926884 857.539177 93 105 107
1233.252335 1287.915897 1167.929554 106 117 119
372.193670 176.627922 180.068278 208 210 210
1251.373577 1314.445686 1175.781345 30 13 11
1250.319099 1298.052120 1171.154213 100 111 113
1011.253071 1587.424374 985.301304 80 80 86
804.793358 1077.257729 551.695967 162 172 175
360.188103 121.479070 30.234057 53 65 69
370.991302 104.975390 15.768175 63 73 73
375.501680 97.086823 5.615648 137 146 149
375.501680 97.086823 5.615648 137 146 149
380.748200 86.352837 -6.494544 133 142 145
379.261780 114.065647 -9.872819 160 168 168
383.385682 81.570399 -13.499975 130 140 144
359.637356 137.558377 44.899541 68 79 81
334.501886 223.091173 77.713341 13 37 42
334.440517 226.792455 79.044676 143 162 166
335.880828 222.076392 78.953981 156 167 173
361.622453 137.141454 45.778912 9 9 9
315.586495 320.152402 60.206681 165 170 170
315.448308 320.901537 60.508662 20 21 23
315.448308 320.901537 60.508662 20 21 23
388.274264 113.301170 34.089807 65 73 76
317.907381 316.238594 64.219534 114 119 122
337.232518 233.327293 84.079647 85 122 129
319.118953 313.077188 66.172022 152 157 160
318.324280 316.948485 64.674586 148 152 153
338.519812 231.144047 85.323524 12 22 29
320.168686 312.918878 67.361122 26 28 26
320.195842 313.531446 67.210281 40 42 42
320.199633 314.487648 66.985631 107 109 109
354.616404 175.913358 77.098924 74 93 97
320.692658 313.169694 67.879730 26 28 27
320.547676 314.366603 67.392242 124 125 124
320.466685 315.416718 67.319787 19 22 20
338.934398 235.815644 87.156153 10 18 28
338.934398 235.815644 87.156153 10 18 28
320.652485 315.443254 67.346787 23 25 23
321.201944 314.049578 68.629634 27 27 27
320.923209 315.114403 67.769229 20 20 20
333.188009 268.636513 84.907126 152 155 158
340.419436 242.284322 89.950842 127 136 141
396.427464 95.448476 -6.441487 62 72 77
341.567278 236.287260 91.190147 149 156 159
342.166829 242.678213 92.956531 138 149 161
342.956281 245.345473 94.773793 101 109 122
347.284341 243.637562 100.583637 37 37 39
345.712256 246.670222 98.796290 135 186 195
384.532642 106.197536 -8.390986 132 129 131
330.191541 321.598029 77.596009 251 248 248
330.088592 322.081351 77.163887 120 116 115
330.088592 322.081351 77.163887 120 116 115
379.295278 113.190365 12.019888 121 130 133
338.287640 299.657750 97.500712 32 34 35
361.007023 257.323194 102.674115 93 101 116
361.782551 261.462951 103.922379 18 29 49
351.471353 285.314345 115.711701 255 255 255
347.989583 261.037302 104.998338 73 82 92
351.340890 290.425634 119.149649 255 255 255
348.930621 263.222814 106.918311 138 149 161
133.807707 1305.770016 686.548376 111 119 119
349.298477 342.349982 87.106550 127 131 130
396.699715 67.447859 -51.803058 121 130 133
368.139195 311.937761 141.607118 18 29 49
378.282046 328.537440 165.355349 14 21 25
376.097751 337.860227 158.803618 100 103 103
380.840707 329.775143 168.038464 60 66 72
380.940461 330.196571 168.375921 60 66 72
266.830301 750.030613 281.725359 91 77 73
344.313478 389.129090 88.290811 52 57 57
388.533330 360.994792 179.873550 41 48 58
388.533330 360.994792 179.873550 41 48 58
352.603507 391.428280 89.047641 49 49 51
406.371260 153.818965 19.281207 33 13 11
409.770632 198.736024 27.331170 25 34 38
398.540807 380.109191 189.311230 80 91 115
371.828103 467.103910 177.227044 139 175 229
369.632745 491.961813 188.828397 139 175 229
346.166277 -89.502561 -323.082423 146 153 156
413.592100 408.029222 217.549562 94 111 138
406.825542 407.487154 196.239805 126 148 189
431.558561 432.240057 223.846602 39 46 64
494.039679 476.936913 377.792907 117 136 142
366.084504 330.204415 106.723833 20 22 22
434.599543 437.252283 227.897644 40 45 63
428.078604 445.671701 212.438321 145 184 236
445.171499 461.862373 254.695964 37 40 53
454.935074 458.737278 262.736249 14 18 20
455.119848 459.023237 262.777066 14 18 20
612.036991 738.494349 750.685024 55 66 64
629.734182 771.995878 795.017099 89 94 92
452.989292 467.433643 259.008765 55 61 72
446.854210 227.428746 113.652349 105 121 128
463.017607 471.544743 272.513938 27 33 38
442.341661 462.213707 230.557609 137 168 220
460.316086 489.655924 264.845109 235 252 254
407.501125 451.529646 150.980020 155 185 232
708.871317 917.453003 953.340530 42 37 38
744.445562 982.789898 1028.414154 101 102 105
477.019072 517.917109 290.662408 109 131 167
840.977859 1151.633167 1212.869835 93 99 103
544.203281 576.890230 376.817966 144 170 182
515.078735 580.864954 342.637444 117 139 175
549.767399 585.975885 383.470249 153 178 190
560.042143 1006.633949 692.572069 50 59 68
570.550489 1044.735622 721.908855 163 175 181
274.393511 -254.739642 -428.452778 97 102 105
560.912895 644.846773 383.762121 32 37 48
401.151466 36.257517 -79.820073 23 31 44
776.530600 817.488575 686.369276 106 125 129
739.458370 805.467033 608.251381 32 44 46
644.825792 750.972080 478.600550 71 78 87
644.825792 750.972080 478.600550 71 78 87
738.464594 798.231888 571.343851 43 56 64
638.449192 751.905346 448.699427 9 15 25
664.748478 781.772280 487.023401 162 171 175
756.910658 820.439625 594.363737 2 6 11
759.861231 824.560165 595.665312 72 85 89
773.716402 837.632084 610.851288 5 10 10
781.116819 831.406784 610.166025 14 15 15
646.749449 761.526060 444.725180 124 133 137
726.578236 792.561293 535.974789 122 137 145
735.585213 800.309658 543.955803 46 59 67
819.649506 896.883488 667.827702 10 14 14
771.823120 843.476391 588.385487 118 127 131
675.804281 772.237587 465.124273 31 37 50
759.580946 829.545593 569.882774 6 13 17
692.918825 791.436958 483.202457 9 17 28
779.025841 852.142048 589.243317 124 136 143
772.303963 844.207764 578.921127 73 87 95
695.480156 794.533539 481.330395 88 127 135
705.884123 805.911827 488.999224 107 145 153
705.884123 805.911827 488.999224 107 145 153
663.879013 732.212448 416.477203 85 98 103
655.439949 726.239157 403.749800 74 91 100
718.607759 818.141747 496.106052 161 195 203
662.090349 734.807253 405.009413 162 171 175
670.215178 743.736124 413.788652 146 158 162
670.153427 743.815136 411.327124 43 55 61
618.677044 688.441372 341.740370 112 123 127
720.805311 796.243668 467.047071 172 181 184
655.288076 708.899403 365.081477 166 175 177
394.483089 271.064925 34.986472 163 167 168
367.504668 -18.647373 -125.315464 97 103 108
881.789207 935.471630 638.168764 31 50 58
392.599988 298.247218 44.389006 163 167 168
719.346142 796.117544 441.167402 19 25 37
813.712025 1043.907166 596.325111 44 58 61
531.722021 612.679100 204.726815 124 135 139
539.323807 620.218372 211.158276 150 159 163
536.595392 620.376778 209.009123 99 111 116
539.752340 624.371529 211.627507 14 26 29
400.436687 21.204619 -112.216711 95 105 109
530.494785 561.677027 179.433858 130 160 167
774.859333 839.132023 471.787119 132 143 143
767.147303 872.738171 473.928690 171 177 177
747.011089 851.424503 450.198078 21 26 36
778.502321 846.742249 471.335888 89 98 102
551.167774 644.997072 217.758226 130 161 167
549.134445 642.558575 214.751005 133 162 169
597.890711 676.247120 263.442135 167 176 179
723.460340 818.597221 409.331703 120 119 119
741.603136 843.267727 431.657934 30 25 26
1025.474453 1064.354992 727.406979 21 36 42
546.219301 655.941725 213.376021 78 94 100
1047.790146 1087.671566 749.923849 43 57 63
550.330687 645.256901 213.531113 61 65 66
753.373003 855.956078 441.772223 177 185 188
737.308455 835.851574 420.971584 66 90 96
718.563700 808.129883 396.676588 97 101 102
731.951571 828.215218 413.346720 91 96 95
543.433523 639.380121 203.057885 42 50 52
554.299164 650.283051 214.380884 121 124 123
543.333435 639.593744 202.361417 35 48 50
1061.359310 1101.946259 753.570747 143 157 163
551.750040 648.267651 211.669827 136 133 131
545.485210 641.562366 204.562306 87 93 95
532.591009 627.240133 189.613628 50 63 66
550.214243 646.884871 209.319043 38 45 55
545.035601 640.879202 203.281641 101 110 110
546.801090 642.949581 205.055523 26 34 56
573.054886 667.320919 232.330728 91 114 121
535.760736 631.112051 192.051816 131 154 158
552.127838 649.432898 210.198116 39 54 100
555.216932 652.417231 213.454771 134 133 129
538.613129 634.174061 194.173360 3 21 28
554.658556 651.179695 211.553288 125 127 127
542.671347 634.662867 196.399295 131 161 166
560.851049 658.134031 217.737317 124 125 123
556.707954 653.755617 213.207650 48 50 49
575.892210 670.350790 232.905984 119 138 144
555.596399 652.713728 211.448812 90 94 93
560.849857 657.909918 217.101431 6 8 6
557.267141 654.513836 213.052726 121 125 124
560.162544 658.078384 216.011834 130 133 131
570.649624 665.917683 226.247692 58 85 91
541.194439 637.266016 194.869614 133 161 168
554.351521 650.765419 208.552885 36 51 93
558.368111 655.741310 213.242483 29 35 51
561.294460 658.143950 214.322400 17 25 47
880.048752 965.664482 539.464760 123 135 137
753.305197 841.650105 361.233830 69 78 84
350.081778 108.289635 2.212024 8 13 12
408.604527 13.496973 -72.124487 71 85 92
397.098541 43.315822 -58.209127 176 181 182
389.238787 59.265584 -42.013857 176 181 182
355.617237 106.837690 11.365615 78 88 91
425.847673 -100.830972 -78.636718 122 129 132
189.182162 498.726845 504.906082 78 85 86
282.644343 329.021502 244.516706 69 81 84
417.670345 -79.871547 -79.312402 166 170 172
418.671513 -84.395385 -79.257584 26 30 31
416.415358 -77.083582 -79.312390 21 24 25
395.970654 -8.477899 -66.926706 163 168 169
359.306240 122.254169 11.949985 89 72 69
384.740090 30.467793 -47.762471 215 254 255
382.675099 19.860376 -57.182151 238 253 254
382.320023 19.268431 -57.609582 30 48 51
397.354913 -55.894738 -74.990177 253 255 254
366.014409 130.527997 21.304283 14 23 44
394.039607 -33.738163 -61.582351 110 115 116
370.280814 129.123020 34.776908 177 182 181
374.213934 55.794084 -29.875422 195 215 232
371.080613 148.231888 35.656363 177 186 190
374.965906 46.333772 -38.294086 252 255 254
369.725752 123.870254 20.682454 10 23 31
374.643350 120.674109 14.774418 55 61 66
396.059299 -41.072655 -53.768879 51 54 56
374.914503 120.128524 14.394608 171 178 181
370.681643 145.364082 29.958388 253 255 254
370.681643 145.364082 29.958388 253 255 254
385.743523 267.522240 76.696295 74 98 104
372.429347 97.857988 -4.451871 143 152 152
373.012304 69.124866 -23.836458 21 26 29
371.331310 114.048314 20.089097 74 98 104
372.681904 114.529800 20.384645 74 98 104
450.028133 411.823511 343.446589 77 82 84
391.327572 261.936736 78.052640 17 34 42
352.971339 -88.996458 -126.251328 73 104 157
382.740521 146.199858 33.396795 17 34 42
367.356777 -123.011267 -88.813448 71 87 114
300.991726 -72.902703 -191.401160 120 125 128
218.374300 -412.350893 -381.087947 24 29 32
218.944573 -410.370445 -379.564953 24 29 32
264.156151 -301.862693 -264.810395 136 169 218
216.913152 -209.778547 -344.006371 167 173 173
260.746479 -305.535793 -267.326736 138 166 211
214.597917 -216.048861 -344.471240 100 107 108
360.310745 39.406320 -40.766978 221 198 197
182.681298 -242.540193 -386.305714 170 174 173
375.077915 75.256425 -22.340548 85 102 111
375.524092 85.773331 -16.774449 94 106 106
318.282700 -236.439013 -146.605897 47 53 60
380.760527 93.257624 -8.927526 114 124 124
87.133735 -557.747602 -499.459410 179 186 189
360.872197 56.941026 -42.144936 142 169 173
380.783629 84.355873 -12.316632 172 178 183
171.693110 -614.466095 -305.921769 152 185 190
183.410180 -602.820063 -290.034771 125 138 139
177.102256 -612.039042 -297.162104 25 26 20
177.102256 -612.039042 -297.162104 25 26 20
179.103518 -610.711193 -293.483424 124 130 126
162.889230 -651.472664 -313.456678 86 90 86
821.874237 718.586206 483.362007 70 88 93
873.540401 837.043381 539.289713 125 134 138
383.569622 86.442810 -13.684389 166 177 179
363.863635 134.519160 30.200750 39 54 60
73.324317 708.091974 788.712263 83 92 94
116.637707 664.118910 608.419466 109 127 128
141.900647 574.362040 681.639481 102 108 113
137.412107 584.919405 701.410532 102 108 113
162.557435 596.835375 506.588602 196 207 211
137.555373 591.264439 718.958378 178 185 188
160.682881 605.093670 512.390089 186 196 203
77.468890 782.489538 764.801216 30 42 44
154.164004 562.874556 701.500273 168 177 180
153.440535 564.111805 707.544994 103 112 115
156.008160 562.040138 707.918549 168 177 180
187.591851 578.270531 421.671772 193 201 205
176.897466 524.105310 663.434553 164 176 178
160.929513 560.380840 705.103159 126 137 141
354.614663 156.426251 68.775487 98 105 108
121.748066 733.989573 662.960100 30 49 52
211.277413 526.975536 393.549275 187 196 200
223.638964 491.151810 444.263220 114 129 131
141.343844 781.700802 534.528065 191 200 203
140.701342 803.701210 546.649933 189 240 247
150.032234 785.139990 537.254953 186 200 205
334.785628 191.392326 57.535768 178 185 189
361.413121 148.468232 37.924817 205 214 219
146.367455 814.797878 558.420753 74 110 123
42.074761 1162.121964 527.860880 58 63 62
153.884757 825.709820 565.372610 15 31 39
152.839696 831.204224 572.775316 197 202 208
351.039672 185.102940 64.802557 21 32 58
358.107376 161.202407 47.573757 208 221 228
152.473080 856.369591 582.785654 33 44 60
152.473080 856.369591 582.785654 33 44 60
161.043108 835.536194 571.183062 39 48 65
351.502681 184.515095 64.303327 46 60 83
162.984431 879.777050 604.043722 47 60 73
153.681362 915.062618 634.702110 183 192 201
60.188061 1214.791393 570.023251 109 113 113
60.188061 1214.791393 570.023251 109 113 113
63.621026 1204.913807 567.580462 77 78 78
161.879432 889.943027 610.130501 34 53 67
164.023530 895.679760 613.529539 184 244 255
155.732727 939.632225 653.896284 219 255 255
163.473034 914.437103 632.265520 27 82 98
168.984056 921.549988 639.567900 25 50 60
165.143406 935.998344 643.141317 184 240 250
165.143406 935.998344 643.141317 184 240 250
169.171906 927.427101 645.951366 190 200 203
178.174579 896.043777 617.961216 183 195 199
178.174579 896.043777 617.961216 183 195 199
206.235671 774.467182 478.636217 30 34 37
216.424370 749.343634 475.170565 17 30 33
95.156407 1171.599960 555.681705 243 244 245
94.017434 1176.286507 558.156443 243 244 245
195.669258 851.971531 568.006992 120 169 181
241.707754 671.394157 453.408766 177 185 186
241.844583 675.284910 454.312277 37 42 43
82.401240 1241.587353 586.252689 22 24 25
210.133600 811.885834 536.749268 7 30 44
245.349622 674.370337 458.257580 162 169 172
245.341134 676.919842 455.492210 27 31 32
245.341134 676.919842 455.492210 27 31 32
105.694199 1174.423122 556.517029 251 255 255
105.694199 1174.423122 556.517029 251 255 255
97.829837 1210.454845 575.194311 251 255 255
223.819971 768.066692 485.739326 201 245 252
320.566034 396.974850 334.799433 162 173 173
177.518952 955.728436 517.763948 21 26 27
282.095408 536.296225 333.042407 78 90 114
245.298195 721.805048 465.820694 72 75 79
194.164526 998.147583 685.079098 76 89 110
257.223034 713.910532 473.795748 127 130 135
255.377746 719.243622 463.830662 17 24 27
258.664942 713.596153 472.480822 34 39 47
398.337460 -94.038707 -203.161240 16 28 31
264.192724 697.490501 447.510290 44 57 57
263.637877 703.052950 448.368979 26 32 31
348.210073 159.221375 39.714408 93 102 115
338.771963 392.706251 231.166863 178 186 190
369.073796 145.187163 57.059586 210 212 212
354.345179 98.195261 -5.267737 188 187 191
360.675836 34.503531 -69.045293 16 28 31
394.041467 428.092527 320.198822 135 164 169
400.951815 226.471972 182.669556 167 170 175
410.171461 1447.813988 1048.121738 191 204 212
389.670181 1643.169594 1112.941551 73 93 130
405.448055 998.906040 654.439449 70 92 128
372.581005 213.645339 84.389526 45 44 66
399.374032 190.006089 124.928892 128 131 135
399.374032 190.006089 124.928892 128 131 135
419.493723 1260.328293 779.655409 163 205 255
417.908525 820.091724 519.115782 107 134 180
373.212934 210.548425 82.061082 37 41 60
373.459291 209.911585 81.276762 229 224 231
374.057841 206.236053 78.775591 41 46 66
375.445151 226.243496 93.243062 105 98 102
350.625181 92.573059 -8.177780 172 177 181
339.660954 77.657521 -41.544828 120 128 127
446.356201 241.633677 206.779099 184 183 183
337.870765 3.231307 -73.517168 208 218 225
164.566672 -322.804093 -471.288395 118 121 129
660.899258 1650.861549 1086.209202 178 213 255
606.181908 1293.332481 847.821999 41 57 80
616.678476 1263.059902 844.950199 17 23 40
539.045048 922.628117 589.523983 11 22 57
345.728827 86.787111 -20.718297 184 192 191
351.121974 67.289466 -20.602641 74 110 123
371.822619 221.288919 76.998836 139 177 229
596.013355 1428.790665 852.634144 103 140 192
515.296030 814.644241 484.641409 117 150 203
346.759343 81.945693 -19.544083 16 28 31
566.035557 1061.558723 634.392405 168 210 255
337.306046 27.451777 -50.748402 21 32 58
823.934841 1509.397602 1058.665085 79 89 97
517.977047 667.670870 386.626792 34 59 71
473.652124 439.590502 252.394152 176 179 180
434.846258 443.269491 206.902909 12 16 20
699.738789 1670.967293 899.946785 56 59 64
536.941290 712.363005 406.594181 10 13 14
532.988262 693.293810 396.055675 10 12 13
570.281267 874.975204 493.874311 7 12 14
578.159142 911.718559 514.274073 12 16 20
423.426771 297.087979 140.860510 156 171 188
688.842869 1496.123695 815.073776 14 17 19
628.087187 1147.036648 636.704254 86 103 111
701.489162 1556.212425 844.527912 28 36 43
709.029150 1598.585033 865.711975 18 25 30
694.104004 1499.532604 816.910648 89 104 112
469.109201 259.522176 180.694544 179 190 188
332.669973 89.314336 -24.085923 101 109 113
431.212378 256.991839 136.704230 40 54 60
442.988443 308.124232 164.591479 111 130 138
615.275288 819.463062 509.129906 105 120 138
517.569876 1104.452801 487.261438 101 114 120
354.302239 115.020597 9.709954 193 203 206
42.994648 -350.501418 -469.113064 53 31 29
608.932877 779.984856 481.066513 154 169 186
-16.182517 -449.473047 -561.271095 126 137 140
439.042234 290.492439 150.105441 80 99 104
350.189185 114.400220 14.132629 35 38 42
607.910872 760.071087 466.282177 156 171 188
612.928629 744.864702 454.697800 133 184 187
598.113251 715.034533 426.425505 76 108 111
607.850838 727.859259 439.002657 37 58 63
607.850838 727.859259 439.002657 37 58 63
417.285347 226.906395 103.964508 52 68 75
551.174307 564.816141 330.331397 190 200 203
580.901146 639.661598 379.301190 189 230 232
586.340618 648.229694 387.211919 72 107 115
558.537626 578.067112 337.778950 54 81 88
415.134335 219.713449 97.878087 104 117 126
426.062155 246.460199 115.089226 103 117 123
425.895023 248.856616 115.408850 114 127 135
420.982552 235.540104 106.686568 127 138 142
108.077979 -211.982107 -320.717072 89 72 68
342.382264 102.112007 -4.907875 189 194 195
410.779810 202.504969 88.303387 17 29 31
413.849497 217.375016 94.813377 16 18 19
164.932144 -129.247653 -242.278385 159 168 171
420.554590 233.609223 104.934704 158 169 173
421.842909 236.249638 106.651998 161 170 174
479.049540 281.432080 175.623393 7 11 11
407.577324 204.747772 84.399623 61 79 85
414.124966 220.291257 94.298577 38 51 59
397.420526 183.456552 68.469447 100 117 123
514.746761 472.871971 251.659465 193 202 203
551.544952 577.359390 311.809659 196 204 204
-66.222650 -255.027747 -482.015800 164 174 176
-66.222650 -255.027747 -482.015800 164 174 176
539.352274 537.073946 287.742519 64 79 81
22.890504 -234.643888 -390.136003 170 180 180
529.370117 507.786942 270.164657 71 58 56
125.812495 -169.356990 -275.747848 78 57 52
112.396169 -122.195697 -275.841379 101 110 113
174.542868 -63.421500 -202.480435 101 110 113
88.718075 -183.623862 -313.062167 176 186 186
492.306948 415.810299 210.979486 189 201 203
516.548872 474.747801 247.949505 91 97 101
540.507650 531.363344 283.810401 66 87 86
133.236170 -156.524980 -262.069750 48 25 21
562.232733 587.827873 312.079167 181 193 196
409.277582 209.650326 80.053580 200 209 212
607.442188 641.106939 347.463846 107 119 130
639.763689 707.732487 389.583921 107 119 130
635.775566 696.910429 380.273271 168 180 184
376.897860 161.924016 38.217819 182 194 198
525.155401 445.786905 222.193527 186 198 200
575.580263 561.992502 288.311076 185 190 193
455.116701 294.174647 129.582763 193 202 205
554.108810 497.600555 251.668167 182 194 197
452.726078 290.943837 126.553392 26 37 39
451.250601 286.924791 124.206889 13 24 26
465.326977 315.819931 140.338457 3 8 8
457.296515 299.053836 130.027294 167 177 177
467.097235 315.164161 140.173936 105 114 117
444.113255 270.323968 112.125838 194 206 208
512.542105 401.965141 189.264452 182 194 198
313.197970 57.698232 -31.111279 167 186 191
307.199764 49.711508 -36.654690 67 86 93
342.893338 100.343251 2.349750 92 112 116
206.609058 580.414963 240.243745 150 153 156
206.925225 578.856277 241.516972 41 44 45
207.327271 580.724716 245.208192 47 51 52
118.289018 605.813503 512.074518 128 144 151
214.771175 602.228308 257.213473 39 40 39
49.382418 916.129684 827.310467 201 214 216
18.257236 1015.708733 927.118397 201 214 216
18.257236 1015.708733 927.118397 201 214 216
329.522085 132.306588 33.438748 167 187 192
162.819898 744.259119 496.010733 20 45 52
147.486603 825.316906 561.822367 173 238 246
164.547408 807.514286 545.155287 65 78 97
221.232390 647.995090 360.773969 41 44 44
150.586128 914.140034 635.181808 205 214 216
177.807689 886.605167 595.366955 110 153 164
165.663230 956.051922 664.793539 200 207 212
330.310559 130.856848 54.916912 107 118 123
193.292654 842.743397 569.045162 63 74 97
171.853948 950.613880 652.152920 77 92 114
226.937556 702.395582 471.611595 197 202 203
231.666756 698.775434 433.954716 53 68 72
233.811545 701.902294 433.316994 157 204 214
235.259032 695.576239 431.526566 57 93 101
233.421493 692.660666 459.441948 187 194 197
233.421493 692.660666 459.441948 187 194 197
236.785507 694.761705 429.477739 157 208 220
244.164014 678.585911 462.011337 166 171 174
380.542183 -97.483921 -229.121971 181 193 193
328.605151 161.731517 74.467432 163 172 175
320.414543 232.094216 101.650298 87 100 122
248.583150 708.370209 485.431385 33 40 40
251.321912 712.470150 488.650370 135 142 145
370.529366 -70.578146 -197.656822 181 193 193
320.788741 251.258373 115.585744 19 29 58
367.151475 -61.519897 -187.014306 181 193 193
323.216033 251.536179 115.910518 87 100 122
357.990074 -36.950719 -158.218801 181 193 193
356.127024 -31.960168 -152.357578 181 193 193
291.092277 831.694698 623.214722 94 113 121
358.051586 -505.470276 -731.717348 196 202 203
358.904982 -555.499029 -786.687660 98 105 109
336.649895 224.605179 214.357615 191 193 195
355.687261 641.072512 460.419703 163 186 195
355.687261 641.072512 460.419703 163 186 195
372.884130 925.967503 768.788719 25 42 48
400.602865 1370.500851 934.589291 54 69 89
386.147666 1123.158741 720.487118 116 149 202
404.653931 1375.093842 934.953308 37 58 90
406.225824 1226.260948 833.625317 185 238 250
391.593456 1014.909458 644.241190 62 87 131
305.079913 -12.251062 -192.955971 187 191 192
390.500045 957.219791 595.054913 157 201 254
365.192127 225.862432 139.977872 112 134 139
417.738485 856.875896 547.940826 101 120 158
472.146893 1314.355087 908.623314 34 39 43
311.824846 -75.825536 -163.132322 118 142 150
372.215581 319.039321 161.794162 126 140 162
460.805798 628.487444 519.732809 130 160 171
422.958660 916.455269 462.531090 164 193 237
606.607628 1627.918053 1131.661606 152 178 216
390.623331 234.268904 156.019521 159 171 175
393.718505 238.518190 160.832870 159 171 175
585.828400 1163.532734 815.611553 210 222 228
345.986962 152.381885 46.236953 113 90 89
532.461596 921.263027 583.694267 252 255 255
383.444262 562.208605 202.560878 8 10 9
386.513162 573.101425 209.388733 6 11 10
386.499071 572.096491 209.006262 6 11 10
521.830845 863.616753 538.014603 43 60 87
496.312380 780.198860 460.909128 150 188 242
517.686224 812.339020 506.643677 72 91 128
391.164732 550.986624 204.312778 68 71 71
386.008167 533.106899 190.206814 81 85 86
386.008167 533.106899 190.206814 81 85 86
387.395215 523.133278 183.232093 54 57 57
413.602591 582.838726 239.688587 68 72 73
390.230250 525.919294 186.751807 10 14 15
390.036154 521.761942 183.059394 15 20 21
408.377647 200.988770 172.002196 119 124 127
425.504827 574.290562 238.529563 66 71 72
456.707096 617.183208 290.084934 75 79 84
439.242887 587.546682 255.972600 66 71 71
442.403460 591.888618 261.435986 13 18 19
453.399086 598.340607 273.362064 13 18 21
437.008095 454.300690 219.233751 12 16 17
509.143591 632.336855 356.920838 124 131 134
469.826126 541.837740 278.923464 12 16 17
338.368320 142.136669 32.712451 76 87 97
511.756611 624.014902 354.570055 130 165 177
494.596958 619.101954 326.826549 13 15 19
525.180483 602.220678 370.143986 152 148 147
500.819683 621.166182 334.103227 16 20 22
501.182604 616.825867 333.300686 15 19 20
512.963295 612.163591 345.349669 15 18 19
533.117199 553.612232 368.162203 123 145 156
561.032152 678.806591 429.257011 70 65 66
521.059561 597.329426 346.106458 142 149 152
533.628130 590.412998 357.307220 188 199 203
533.628130 590.412998 357.307220 188 199 203
574.259233 651.530695 393.078327 50 58 75
550.291395 407.253695 346.112537 23 27 28
593.419361 502.878284 405.058146 125 144 149
593.718815 497.294235 404.743195 9 16 18
563.529158 606.334496 354.939198 84 129 136
563.078547 583.796072 344.657826 196 206 209
553.348255 571.766186 330.329895 22 51 57
537.628555 430.072165 290.884948 58 70 76
537.892532 425.584888 286.099339 108 124 130
545.306587 432.590771 297.169304 103 118 121
497.558546 300.587726 226.613879 115 95 94
542.128134 514.746046 294.222522 196 203 206
483.229685 503.466225 222.811532 201 201 203
532.743788 485.644150 269.602776 194 199 202
558.251286 382.018471 302.109456 122 135 139
519.215441 492.219591 252.701831 85 104 111
541.970205 399.755716 272.167563 20 25 25
559.521484 382.377768 300.883770 10 15 14
556.231117 366.102910 299.208546 97 76 75
556.231117 366.102910 299.208546 97 76 75
535.853195 416.232300 262.313104 23 25 25
530.750561 390.312624 252.913690 61 66 65
534.968519 402.357531 258.270240 116 125 128
535.111427 400.900602 258.170176 106 117 121
540.243387 340.481925 270.629954 115 95 94
560.046053 374.611235 292.930317 125 133 136
531.087446 434.091997 251.738119 200 207 210
531.576490 434.822845 252.236867 200 207 210
530.350447 388.296890 247.483087 42 54 58
556.580353 365.827036 285.352540 122 134 136
549.605179 351.649356 273.402238 119 133 135
518.233109 464.570951 233.527541 49 45 71
517.174721 457.154751 229.912138 225 225 225
526.519251 479.654837 242.456722 78 54 56
526.519251 479.654837 242.456722 78 54 56
518.116570 453.363800 227.955508 131 137 142
520.945644 474.050999 230.585146 187 202 210
520.945644 474.050999 230.585146 187 202 210
590.177822 313.853955 304.616666 107 117 120
516.496658 462.261868 222.538495 192 204 214
515.532207 493.348074 224.640107 207 210 212
515.978289 494.054222 225.060296 207 210 212
439.490414 414.767504 139.176726 115 124 127
508.961678 481.615114 214.990735 218 222 221
549.395800 369.247222 248.902488 133 154 157
549.395800 369.247222 248.902488 133 154 157
511.170435 484.387159 216.873145 218 222 221
500.053167 469.154596 203.755879 133 138 137
508.498144 477.050591 212.186956 139 144 144
555.391264 361.901808 251.924253 102 122 126
520.027256 434.191322 215.038896 183 192 196
520.893192 434.128952 214.807487 142 150 154
538.023424 338.828301 222.748542 124 143 151
538.023424 338.828301 222.748542 124 143 151
505.247307 417.627335 190.768611 205 213 213
515.654564 411.174440 198.362875 9 17 17
514.071608 400.509882 190.729785 7 15 14
514.071608 400.509882 190.729785 7 15 14
514.071608 400.509882 190.729785 7 15 14
514.071608 400.509882 190.729785 7 15 14
510.845518 396.566272 186.052907 148 161 163
523.452568 347.289205 193.636286 155 177 183
511.884832 397.830081 185.074973 189 203 202
516.822052 392.938113 187.543702 197 206 209
506.822062 387.439752 175.044179 92 108 114
317.240548 73.788238 -25.472808 52 65 68
511.072493 227.215433 153.562939 196 210 217
362.710977 -95.480460 -103.656876 159 164 167
352.302194 -92.964339 -142.318940 145 178 188
407.026386 -202.931786 -340.945673 61 76 79
348.401666 -93.277401 -142.975390 162 173 177
342.591357 -109.219444 -220.305824 60 71 89
331.767106 -119.691753 -196.626699 106 118 123
348.303008 -105.296779 -89.889455 22 25 28
339.983368 -113.605499 -128.975546 22 25 28
298.499799 -167.535615 -254.743791 106 118 123
358.125877 1112.786388 1444.771004 141 150 153
327.331209 -115.019965 -168.283892 181 191 198
302.241445 208.152628 258.584213 75 85 90
302.372599 -131.856918 -308.396339 168 177 181
262.021804 -327.330518 -472.750092 60 84 99
320.510936 -138.145030 -168.506336 233 249 250
303.250909 -177.828801 -203.833747 11 19 42
403.017521 188.670993 145.401967 90 102 108
497.765636 508.323574 531.009674 98 107 111
307.314897 -153.948522 -144.326496 155 188 237
390.521550 190.621400 173.250413 148 158 161
313.197827 -96.612233 -116.849768 69 88 93
295.150399 -165.067649 -181.990230 11 19 42
353.167081 138.778055 120.972085 148 155 158
346.313930 95.063335 62.407017 160 162 165
341.242599 -37.587452 -64.157248 31 31 43
321.063828 73.150086 60.192961 155 158 163
312.856269 -90.666175 -71.613932 69 88 93
315.544152 -115.838146 -103.103054 62 64 65
314.547849 -116.352010 -107.089162 62 64 65
308.085775 -101.407111 -103.111470 93 135 149
301.670909 -151.703846 -126.771879 15 21 25
304.529786 -148.065734 -121.261370 36 40 45
547.111940 359.594607 308.995175 75 58 57
302.398157 -84.859419 -93.893629 178 189 196
542.185736 348.500896 296.954894 28 11 9
564.236069 377.618074 320.025110 3 8 9
539.272165 331.219172 276.583147 83 64 65
557.408810 352.588797 292.264938 1 6 6
309.183812 -87.949795 -90.540862 32 54 62
542.191124 321.651769 262.679577 108 124 126
576.515770 357.571411 284.994531 101 119 126
735.031891 553.769922 379.462767 107 116 123
364.570928 -105.390310 -212.584519 12 13 13
367.154384 -107.496977 -223.124409 12 14 14
342.918539 -102.289939 -121.948826 20 35 65
371.555090 -113.462508 -225.886273 69 68 68
371.820378 -113.925850 -226.070213 25 23 22
371.338606 -113.747704 -225.996089 60 58 58
372.577119 -114.729583 -226.019168 90 88 87
372.237825 -114.820313 -226.312184 21 19 19
341.774702 -88.534474 -77.825612 90 92 93
377.050924 -121.558070 -238.898492 113 118 117
377.050924 -121.558070 -238.898492 113 118 117
377.390504 -122.932506 -241.264033 24 36 40
377.670550 -125.578129 -244.092870 41 59 66
377.346158 -126.466811 -244.677687 164 175 179
385.815716 -134.681153 -229.094958 179 188 191
343.127847 -90.541494 -93.487912 133 136 140
345.222855 -104.224288 -145.563650 159 164 166
340.452576 -103.015721 -195.793903 18 23 24
340.516329 -107.684839 -143.896258 17 28 32
345.466304 -105.054879 -147.327745 161 169 169
343.597293 -106.095600 -146.180618 28 33 36
340.493989 -108.269536 -144.891107 17 28 32
340.150380 -105.611813 -211.038351 22 29 32
340.143943 -107.082903 -219.462585 169 179 179
340.084767 -107.305717 -219.805956 18 23 24
340.323043 -107.980442 -220.836687 13 18 20
340.332365 -108.450067 -221.652389 166 175 178
362.344670 -146.657073 -269.123745 163 176 179
361.936355 -146.824503 -269.002151 33 70 78
361.182475 -145.922256 -267.146087 79 115 120
361.474681 -146.652436 -268.357253 193 251 251
360.956883 -148.160362 -270.106673 26 58 64
341.952348 -115.603995 -230.709934 40 43 44
359.158087 -151.851439 -274.713182 18 42 52
358.139849 -150.336230 -271.783853 28 37 50
357.508826 -150.439620 -271.570754 154 165 168
342.765617 -95.293939 -102.542603 64 72 76
363.467979 -150.871933 -206.321454 159 167 167
339.939618 -119.390464 -233.906388 28 28 28
350.679207 -142.359674 -254.468870 154 166 172
353.047729 -105.013990 -145.926964 189 236 238
351.524615 -157.580435 -260.870934 26 31 34
341.542554 -110.574377 -153.620315 85 89 92
334.923959 -128.234637 -239.883709 255 255 255
334.923959 -128.234637 -239.883709 255 255 255
332.120585 -117.422652 -225.899005 32 35 33
333.568478 -123.889065 -234.079075 45 47 48
329.277945 -126.044869 -248.937297 19 22 25
375.401592 -256.233859 -355.029106 165 171 170
342.059827 -109.597456 -127.204621 165 169 170
321.487164 -150.251853 -279.197407 70 76 91
323.551297 -193.875515 -316.263795 142 167 212
345.312166 -87.820089 -97.518349 61 71 75
314.112186 -180.583560 -278.638673 159 199 252
311.491632 -202.550912 -298.926973 16 21 22
328.771687 -119.531584 -183.327484 157 183 224
345.474911 -105.713224 -132.704163 100 114 130
345.474911 -105.713224 -132.704163 100 114 130
360.844159 -63.475847 -52.139807 94 108 112
350.842500 -72.817314 -72.646517 133 136 140
482.840633 397.540259 407.322693 57 64 67
289.415121 -208.230829 -294.627690 102 138 192
346.098542 -100.129831 -120.576084 100 114 130
346.098542 -100.129831 -120.576084 100 114 130
287.691331 -211.062860 -296.412325 47 70 112
285.642076 -213.071370 -298.171377 128 150 195
301.099634 -155.196643 -243.386340 161 190 235
370.592833 -6.313457 -40.529656 61 71 75
328.593564 -133.634174 -157.716715 61 77 82
281.004500 -208.685064 -288.771057 15 22 25
284.888721 -195.720112 -276.451039 17 24 27
348.605537 -93.879598 -115.129030 136 137 137
432.790613 19.247416 117.455018 94 108 112
290.474820 -176.950848 -258.010387 100 106 111
299.347043 -149.409425 -233.557534 75 80 81
298.789763 -150.113606 -233.639383 10 17 20
298.134804 -151.387012 -234.456444 96 106 110
314.070272 -132.810485 -193.945694 143 167 207
191.105700 -415.893984 -466.837788 3 11 13
482.130432 240.069413 202.436066 26 16 15
490.203094 257.067466 220.858002 36 14 13
244.506359 -277.930450 -349.478936 98 142 151
249.029469 -267.545056 -337.875676 69 101 107
165.844190 -465.740824 -514.481163 70 76 79
157.328033 -480.903292 -529.982138 13 16 16
173.472989 -437.517643 -492.404842 12 15 15
240.684533 -283.359528 -350.408387 166 181 183
183.220541 -413.479090 -469.951439 125 137 139
331.100106 -116.103458 -146.259499 177 190 196
351.994658 -77.814841 -91.212851 139 168 177
250.920105 -249.877286 -314.290428 44 40 35
255.322790 -240.811038 -304.898977 50 67 71
501.948738 244.881797 199.510801 13 18 17
507.010937 252.735686 206.917167 1 4 3
508.231640 255.236840 209.202313 1 4 3
493.555784 220.747757 171.245563 97 109 111
277.687168 -188.400114 -255.909204 95 106 110
292.533827 -153.049862 -228.803468 138 150 154
451.949167 147.213960 79.675084 64 76 78
479.107141 187.386310 132.752264 99 110 113
291.239595 -152.093935 -230.998135 94 108 112
231.875014 -267.637539 -309.242868 116 128 130
245.310926 -249.660158 -303.387356 147 153 158
372.495914 -56.804067 -50.798649 85 97 99
236.636972 -262.834001 -317.023492 127 139 141
292.245197 -150.220513 -225.222611 143 146 141
292.245197 -150.220513 -225.222611 143 146 141
292.482376 -150.234103 -224.704695 18 23 22
292.918110 -149.003863 -224.124670 120 128 130
292.279768 -150.555742 -224.767756 132 137 135
293.991971 -145.758462 -222.060061 0 6 11
293.991971 -145.758462 -222.060061 0 6 11
292.395639 -149.905396 -223.835802 140 141 138
292.320561 -149.623513 -223.685598 122 125 123
292.320561 -149.623513 -223.685598 122 125 123
292.085123 -149.932563 -223.782372 53 52 54
292.309570 -149.375033 -223.335004 97 96 99
292.742038 -148.479295 -222.231770 37 52 89
271.456742 -197.253251 -249.776983 73 99 102
335.951805 -111.758912 -136.691952 103 128 140
834.589100 775.545502 617.960310 138 156 163
252.189636 -214.574170 -258.907747 172 180 183
349.523830 -86.810684 -106.015182 161 170 173
349.542904 -86.809683 -106.095803 28 33 36
356.380391 -95.870566 -148.949695 36 40 47
341.370678 -81.908822 -83.588850 33 30 29
353.461885 -97.385412 -144.293261 50 53 52
457.564783 -185.188115 -584.805250 25 25 25
352.659702 -97.378927 -142.013550 21 23 23
352.871895 -97.831267 -143.520713 18 21 22
358.046532 -103.124082 -168.096876 117 126 129
354.494095 -100.532937 -153.547430 161 171 175
355.638409 -102.597368 -160.802209 17 46 48
355.075955 -102.103460 -158.436859 26 43 48
355.569267 -103.311324 -162.191784 155 161 160
328.907156 -65.052390 -17.514697 166 171 170
347.655010 -95.144218 -122.439528 163 176 178
352.896953 -105.836797 -159.962571 160 167 170
347.581005 -95.519042 -123.143220 69 81 85
347.286773 -95.068789 -120.588422 58 67 67
348.654795 -98.231369 -132.750976 147 159 163
347.097468 -94.525242 -117.817020 138 150 152
347.241211 -96.931773 -125.578213 60 73 75
356.905293 -129.406655 -219.969964 36 69 77
346.716022 -95.182139 -118.345451 96 105 108
342.189980 -84.998977 -94.892514 153 159 160
342.221022 -84.967989 -94.895446 9 12 11
342.156196 -84.509963 -93.448889 34 39 40
357.617903 -142.296636 -248.704910 14 25 33
342.165518 -83.701354 -91.367316 55 56 56
342.197466 -83.800608 -91.707116 24 26 26
346.580553 -97.398937 -124.781418 118 130 130
342.199874 -83.597261 -91.195583 116 116 116
346.252346 -91.105002 -113.163590 20 22 36
361.584687 -163.620663 -303.140259 21 27 38
361.584687 -163.620663 -303.140259 21 27 38
332.432628 -34.825692 37.349895 148 158 165
346.341348 -96.356112 -119.207275 211 216 215
339.471579 -66.880322 -47.463313 145 147 148
342.472029 -83.064944 -90.584087 96 94 93
342.472029 -83.064944 -90.584087 96 94 93
342.466760 -82.991427 -90.390587 72 71 70
334.118843 -34.341106 34.178635 27 29 29
351.469088 -131.720269 -211.019373 29 32 32
342.645574 -82.669944 -90.086389 235 231 230
343.973684 -80.774069 -88.270843 106 106 118
349.753475 -131.271875 -205.783796 123 127 130
349.753475 -131.271875 -205.783796 123 127 130
342.894030 -83.713138 -93.375731 29 29 29
328.173923 85.736012 301.497626 34 39 39
342.976522 -82.711500 -91.030812 100 100 100
343.026662 -84.331727 -95.392287 255 255 251
343.028426 -84.332281 -95.395780 255 255 251
334.467244 36.932331 183.337760 255 255 255
334.989381 32.281119 172.695899 255 255 255
345.207763 -97.414607 -119.878328 140 151 153
343.386650 -81.673652 -89.532709 255 255 255
343.882465 -97.188944 -123.053944 77 78 81
344.963312 -97.749448 -118.270600 163 165 170
343.535829 -60.308456 -44.650143 230 240 243
347.784352 -405.292654 -768.610859 27 27 27
345.046759 -97.161615 -118.741632 76 85 88
344.617605 -98.353505 -119.126630 139 151 154
344.426584 -193.707371 -322.750163 31 35 37
343.707395 -82.521087 -92.615056 89 91 92
343.724895 -82.477629 -92.554528 59 58 57
343.810439 -191.750872 -317.067218 139 149 153
343.629408 -103.042030 -127.315331 35 49 55
343.629408 -103.042030 -127.315331 35 49 55
345.303893 -86.309117 -101.284337 106 115 125
343.962598 -101.757812 -127.935803 145 155 156
346.771955 -42.576617 -14.679126 251 255 255
334.382987 -319.396424 -559.523487 23 27 30
334.438944 -317.864561 -556.345940 23 27 30
344.334292 -70.047563 -55.131787 83 119 126
343.890429 -102.221739 -128.817320 86 95 99
343.758631 -102.306628 -128.672588 93 99 103
348.510671 -52.862847 -40.378666 97 112 140
348.382330 -56.590480 -47.903374 55 66 88
350.459933 -47.460431 -34.144956 95 112 139
348.302150 -61.487222 -58.121449 136 161 203
344.143605 -83.858633 -97.389102 130 151 183
341.411519 -106.904590 -133.041596 85 94 97
340.656948 -108.265841 -134.124041 62 72 69
344.936752 -81.946045 -94.580662 132 148 181
340.334725 -108.635068 -134.138501 90 100 101
341.791320 -101.907265 -121.042645 162 167 170
348.556423 -67.829764 -72.413844 142 177 227
339.730787 -110.007977 -135.617507 51 49 51
339.730787 -110.007977 -135.617507 51 49 51
348.897791 -66.803730 -71.058524 70 95 139
344.830465 -82.815731 -96.592754 46 51 60
344.830465 -82.815731 -96.592754 46 51 60
339.640903 -110.208178 -135.817802 77 78 81
339.640903 -110.208178 -135.817802 77 78 81
339.382172 -110.665107 -136.175799 91 92 96
357.029200 -34.255403 -23.097740 19 24 23
357.061243 -34.129894 -22.923666 19 24 23
357.595015 -33.185789 -22.293945 175 189 195
349.804950 -65.578079 -70.982659 53 71 102
338.514972 -111.991620 -136.918378 92 98 103
344.397783 -84.101278 -99.132895 165 188 220
356.684232 -39.887339 -34.067073 22 27 32
357.086587 -38.644037 -32.476246 193 205 214
356.439686 -41.276601 -36.360386 15 21 22
344.724202 -83.541119 -98.380619 142 157 184
350.254178 -66.612750 -74.313366 84 103 140
350.260544 -67.687577 -76.683176 158 192 237
349.056792 -72.078586 -82.667649 152 185 231
349.175906 -71.537459 -82.007533 152 185 231
350.458813 -68.086374 -78.096306 77 98 134
333.964396 -120.516872 -143.951368 158 168 168
333.395267 -122.002900 -145.605218 158 168 168
332.451105 -124.543011 -148.600507 66 77 79
339.045668 -107.701194 -133.068573 85 110 116
317.776608 -167.767107 -202.180171 35 49 55
352.697062 -62.616706 -72.533596 17 19 19
346.153855 -78.129411 -91.378266 145 164 199
342.197847 -97.606486 -119.343019 2 4 1
313.691163 -175.708282 -210.566568 35 49 55
341.403246 -98.731935 -120.080507 3 4 2
354.877615 -59.403878 -70.939767 144 154 161
344.247699 -86.108738 -98.831123 20 20 20
239.459419 -358.931923 -408.105373 115 133 140
344.244385 -83.623809 -95.952892 27 27 27
336.059284 -110.098338 -127.952981 102 114 116
353.384900 -64.499950 -78.073478 158 169 173
356.343579 -57.476056 -70.588565 163 174 178
356.343579 -57.476056 -70.588565 163 174 178
342.845869 -94.294780 -113.240790 59 68 72
389.361501 21.659283 12.967955 35 47 51
384.528399 9.805273 -0.020560 1 6 13
339.199090 -101.608562 -120.038092 65 76 78
349.421954 -74.981046 -90.769100 150 159 163
345.591640 -82.832086 -95.142066 145 147 148
245.525789 -316.867328 -332.337213 98 114 117
242.100167 -324.377203 -339.755607 98 114 117
343.681574 -91.409558 -109.666979 97 109 113
350.743937 -72.965765 -89.937323 32 49 54
351.098585 -72.309095 -89.428270 162 174 180
98.969197 -623.960304 -606.467056 69 54 54
141.623294 -531.604433 -513.309050 74 61 59
350.873947 -72.837192 -90.020841 95 96 99
350.932741 -72.765166 -90.035444 54 64 67
342.913151 -92.936182 -111.208439 79 90 94
346.059036 -82.503283 -99.957091 62 75 76
346.059012 -82.503748 -99.957538 62 75 76
346.059012 -82.503748 -99.957538 62 75 76
455.034876 145.846915 106.126547 1 10 12
455.034876 145.846915 106.126547 1 10 12
349.712205 -75.924754 -94.085747 161 165 166
349.712205 -75.924754 -94.085747 161 165 166
331.901264 -113.374710 -126.989651 79 91 96
775.069475 792.445755 655.073977 27 43 49
707.520723 651.757765 532.047939 27 43 49
358.174968 -59.031254 -79.017884 42 60 68
346.979141 -79.496080 -97.586888 125 137 141
354.070759 -70.075268 -82.488704 118 145 159
345.065570 -85.894376 -99.706012 161 172 176
